# .PCD v0.7 - Point Cloud Data file format
VERSION 0.7
FIELDS x y z rgba
SIZE 4 4 4 4
TYPE F F F U
COUNT 1 1 1 1
WIDTH 123
HEIGHT 1
VIEWPOINT 0 0 0 1 0 0 0
POINTS 123
DATA ascii
-1.5006007 -0.90759283 2.7346249 4279832335
-1.4997673 -0.89580441 2.7388835 4280885280
-1.4832864 -0.89108533 2.73176 4281081634
-1.4647206 -0.8906703 2.7388618 4281081635
-1.4586384 -0.8778975 2.735733 4281410864
-1.4672191 -0.85298228 2.7485673 4282134334
-1.47454 -0.82611418 2.7614045 4282989645
-1.4554812 -0.82480723 2.762517 4283121484
-1.425149 -0.83407903 2.7353697 4283252556
-1.4163237 -0.82096314 2.7272022 4283515729
-1.3977376 -0.81931192 2.6912122 4283975763
-1.3556832 -0.84383667 2.634901 4284237127
-1.3453182 -0.83577299 2.6282532 4284433734
-1.3345627 -0.82500196 2.6130526 4284630853
-1.3351578 -0.80479115 2.629276 4284894285
-1.325702 -0.79578066 2.6803784 4284960342
-1.3238001 -0.77745092 2.6737652 4285289050
-1.2981297 -0.78295994 2.6519923 4285485655
-1.3253359 -0.73417944 2.6891823 4285815653
-1.2945337 -0.74708611 2.6694996 4285945951
-1.3166335 -0.70334506 2.6968212 4286144876
-1.2978662 -0.70080525 2.6938648 4286144875
-1.2752335 -0.7056337 2.6829417 4286341741
-1.2750958 -0.68476713 2.6825924 4286473326
-1.2604445 -0.6790725 2.6772969 4286210412
-1.1962688 -0.72348571 2.6299584 4286142812
-1.1728141 -0.72820371 2.6178334 4285879893
-1.1927168 -0.6862179 2.6267381 4286077274
-1.1896451 -0.67125571 2.6291931 4286866532
-1.2025832 -0.63617182 2.6431179 4287063910
-1.2201943 -0.59957236 2.6515305 4287853426
-1.2425315 -0.55813569 2.6760945 4288183163
-1.2059932 -0.57342666 2.6612341 4287721842
-1.1532117 -0.6078164 2.6251345 4287129446
-1.1206396 -0.61972928 2.6072195 4286866012
-1.052745 -0.66656989 2.5700409 4287325533
-1.0513704 -0.64892411 2.5767102 4287128411
-1.0005912 -0.67864066 2.5640872 4286799193
-0.90931761 -0.74853772 2.5425112 4284695100
-0.89767683 -0.74212271 2.5549383 4283577650
-0.90635449 -0.71513551 2.5574083 4283906614
-0.87321943 -0.72509193 2.5366993 4284103219
-0.89254361 -0.68519092 2.5593648 4283314220
-0.8846702 -0.6750983 2.5653565 4282854442
-0.88253069 -0.65979648 2.5522885 4283116845
-0.88130361 -0.63863784 2.5534089 4283774514
-0.8544845 -0.64601499 2.5668366 4284169014
-0.85955703 -0.62110978 2.5622163 4284826429
-0.82696176 -0.63243639 2.5659657 4284760637
-0.79534662 -0.64437848 2.5527463 4284957759
-0.79718268 -0.62315565 2.5492373 4285285953
-0.80616653 -0.5932107 2.5487735 4285418310
-0.81446892 -0.56567872 2.5353198 4286273611
-0.81172848 -0.54809594 2.543117 4286536787
-0.805134 -0.531394 2.5214632 4286668119
-0.80510461 -0.51083273 2.5223479 4286471507
-0.83332372 -0.46390516 2.5319562 4286800986
-0.82177055 -0.45548922 2.5396123 4286537560
-0.80688578 -0.44935298 2.5313635 4286537559
-0.83707184 -0.3962819 2.5281162 4287129696
-0.88624197 -0.32291961 2.5173512 4287524452
-0.8522042 -0.337643 2.539387 4287261281
-0.82235998 -0.34324083 2.540875 4287326817
-0.82679617 -0.31449327 2.5496612 4287326815
-0.80278355 -0.31849304 2.5587108 4287392608
-0.76433319 -0.3342531 2.578315 4287261537
-0.67841691 -0.40662599 2.5891466 4287195750
-0.62153184 -0.44877771 2.5833867 4287129442
-0.58373165 -0.47096997 2.5870373 4287656301
-0.52786714 -0.51178783 2.5714607 4287590508
-0.44292521 -0.55220389 2.5713892 4287392871
-0.3798655 -0.56936949 2.578079 4287261287
-0.38990298 -0.54322565 2.5741575 4287524457
-0.41785541 -0.49812934 2.5603602 4287722091
-0.14857602 -0.60494947 2.5286055 4285749843
0.14383967 -0.70244384 2.4831123 4284697925
0.24719499 -0.72500384 2.446918 4285223752
0.33987144 -0.73930383 2.4174743 4285354566
0.42189556 -0.74338603 2.3994279 4284763201
0.30342171 -0.68182462 2.4276245 4285815631
0.19384593 -0.68537515 2.4759779 4285617744
0.18996194 -0.71089166 2.4499731 4285420619
0.19239362 -0.6519509 2.4447558 4286408805
0.26677352 -0.62412483 2.470377 4287395701
0.21279399 -0.58938599 2.4651976 4287855995
0.23359016 -0.58370525 2.4665031 4288118911
0.21481095 -0.54669946 2.4673657 4288118910
0.16247247 -0.49013522 2.4696543 4287855998
0.13313474 -0.47415984 2.4713876 4287724670
0.11660269 -0.44486919 2.4464533 4287790718
0.12685741 -0.44291911 2.4419065 4287659134
0.14898507 -0.44726169 2.4575593 4287528062
0.16985373 -0.39466751 2.4912231 4287199100
0.11898406 -0.35309079 2.4794436 4287330683
0.169919 -0.35602576 2.4701221 4287593856
0.10513406 -0.32109791 2.4540937 4286936441
0.10322614 -0.27218845 2.4470165 4286409064
0.17663436 -0.31006652 2.4154818 4286935664
0.23102908 -0.32438919 2.3946056 4287001196
0.26592895 -0.32058761 2.3717566 4287330422
0.2301632 -0.28582516 2.3542275 4287923335
0.17685893 -0.24059933 2.3289921 4287988870
0.21919219 -0.24206685 2.3411071 4288054664
0.25193122 -0.23905571 2.3282416 4288055184
0.25395074 -0.20830902 2.2847574 4288383633
0.25236005 -0.18252042 2.2763762 4288383630
0.28532591 -0.17108762 2.2732241 4288185995
0.29309809 -0.16057169 2.2897737 4288449423
0.25521788 -0.12208203 2.2665381 4288844442
0.25492617 -0.11488339 2.2849457 4288120974
0.24817024 -0.094216958 2.296401 4287528837
0.28024951 -0.088004358 2.2591736 4287463301
0.2628116 -0.061901953 2.1936574 4287199871
0.26179093 -0.047489148 2.1551557 4287528837
0.278851 -0.043774553 2.1488905 4287659651
0.27556872 -0.019703262 2.0464573 4287462527
0.25318688 0.005477401 2.0044532 4286804849
0.2427346 0.030668477 1.9535388 4285356881
0.28950173 0.034042243 2.0405161 4284699719
0.32771605 0.061303157 2.0048492 4284173122
0.37242377 0.063565694 2.04895 4284106814
0.3560217 0.093448117 1.9349235 4284436036
nan nan nan 4284172616
